ply
format ascii 1.0
element vertex 183
property float x
property float y
property float z
end_header
-2.9313695430755615 -0.07918163388967514 5.144096374511719
-2.9586212635040283 -0.19067314267158508 5.203731060028076
-2.947795867919922 3.983142137527466 5.241276264190674
-3.0384774208068848 -0.19377288222312927 5.422173976898193
-2.9040896892547607 3.23642897605896 5.207362174987793
-2.8605387210845947 1.4927184581756592 5.164767742156982
-2.8653416633605957 3.2767529487609863 5.222530841827393
-2.8653416633605957 3.2767529487609863 5.222530841827393
-2.8874402046203613 3.9925637245178223 5.26589822769165
-2.849938154220581 3.236001968383789 5.217535972595215
-2.864818811416626 -0.17497961223125458 5.261409282684326
-2.8643860816955566 -0.09239511936903 5.2593889236450195
-2.8335556983947754 3.4755516052246094 5.24863338470459
-2.827799081802368 -0.17774376273155212 5.263346195220947
-2.827799081802368 -0.17774376273155212 5.263346195220947
-2.7555184364318848 3.365384817123413 5.213192939758301
-2.7555184364318848 3.365384817123413 5.213192939758301
-2.7805442810058594 3.3215701580047607 5.262126445770264
-2.719996452331543 2.4328453540802 5.190392971038818
-2.781919479370117 3.8934051990509033 5.339435577392578
-2.703770637512207 3.3422012329101562 5.235132217407227
-2.706643581390381 3.8994674682617188 5.295238971710205
-2.700120687484741 3.9365005493164062 5.299923419952393
-2.6942684650421143 3.79036021232605 5.29296875
-2.653265953063965 3.936551332473755 5.311686992645264
-2.641278028488159 3.9546573162078857 5.306754112243652
-2.616103172302246 3.8175644874572754 5.312547206878662
-2.5796074867248535 -0.8328962922096252 5.297154903411865
-2.5494627952575684 3.8772170543670654 5.346811771392822
-2.46712064743042 1.010872721672058 5.21381139755249
-2.5014781951904297 1.0442038774490356 5.333090305328369
-2.463639736175537 1.0560555458068848 5.293226718902588
-2.471039295196533 3.9355392456054688 5.370260238647461
-2.3720059394836426 3.9790027141571045 5.38886833190918
-2.3240630626678467 3.8742992877960205 5.398881435394287
-2.0033466815948486 -0.6057392954826355 5.522138595581055
-1.9595396518707275 4.029460906982422 5.516263008117676
-1.9595396518707275 4.029460906982422 5.516263008117676
-1.8986552953720093 3.7681713104248047 5.474325180053711
-1.9050054550170898 -0.5171367526054382 5.507205009460449
-1.9071497917175293 3.8681936264038086 5.5145368576049805
-1.8708665370941162 3.920928478240967 5.54028844833374
-1.8647496700286865 3.865928888320923 5.5287322998046875
-1.8516064882278442 3.8406972885131836 5.522707462310791
-1.8684735298156738 -0.5170459151268005 5.584508895874023
-1.840051293373108 3.712157726287842 5.545684814453125
-1.840051293373108 3.712157726287842 5.545684814453125
-1.7237138748168945 3.748452663421631 5.497882843017578
-1.7140222787857056 -0.14459599554538727 5.56725549697876
-1.717315912246704 -0.1930830180644989 5.580028533935547
-1.6767421960830688 3.6742987632751465 5.522857666015625
-1.6767421960830688 3.6742987632751465 5.522857666015625
-1.691044807434082 -0.16965541243553162 5.585597991943359
-1.6475342512130737 -0.2210613489151001 5.593775749206543
-1.6012547016143799 2.344998836517334 5.608584880828857
-1.5918794870376587 0.7895184755325317 5.625696659088135
-1.5865404605865479 -0.14723333716392517 5.621003150939941
-1.5758998394012451 0.7046643495559692 5.6320600509643555
-1.5758556127548218 0.7445496916770935 5.633115768432617
-1.5758556127548218 0.7445496916770935 5.633115768432617
-1.5613768100738525 3.7893407344818115 5.642213344573975
-1.5496070384979248 0.636273205280304 5.645264148712158
-1.5396578311920166 -0.1990564614534378 5.652580738067627
-1.5150305032730103 0.7518066763877869 5.641636371612549
-1.5150305032730103 0.7518066763877869 5.641636371612549
-1.5045474767684937 0.8553879261016846 5.650747776031494
-1.5013947486877441 0.8117396235466003 5.645564556121826
-1.497424840927124 0.7985575795173645 5.666351795196533
-1.4900203943252563 0.8905099630355835 5.662924289703369
-1.4900203943252563 0.8905099630355835 5.662924289703369
-1.487392544746399 0.9624765515327454 5.666071891784668
-1.484790325164795 0.2641991972923279 5.662377834320068
-1.4716116189956665 3.791529655456543 5.620275020599365
-1.4716116189956665 3.791529655456543 5.620275020599365
-1.482003927230835 0.48780345916748047 5.666445732116699
-1.474528431892395 0.2863748073577881 5.67133903503418
-1.4728068113327026 0.39966675639152527 5.665282249450684
-1.4649964570999146 1.1242133378982544 5.634901523590088
-1.470345139503479 0.7914782166481018 5.6765313148498535
-1.4703495502471924 0.9318352937698364 5.677387237548828
-1.4660074710845947 0.8222957849502563 5.6627044677734375
-1.4606870412826538 0.6831825375556946 5.657641887664795
-1.461887001991272 -0.09420722723007202 5.6653056144714355
-1.4573429822921753 0.5561274290084839 5.6665358543396
-1.45469069480896 1.0707058906555176 5.673089504241943
-1.4539185762405396 0.5878914594650269 5.678869724273682
-1.4504055976867676 -0.10970968753099442 5.667629241943359
-1.4478347301483154 -0.0037857124116271734 5.671761989593506
-1.4485483169555664 0.34334251284599304 5.682812690734863
-1.4455976486206055 0.3751743733882904 5.681093215942383
-1.438706874847412 3.528089761734009 5.6653008460998535
-1.4339649677276611 -0.053419820964336395 5.672359466552734
-1.4336514472961426 0.38894426822662354 5.682109355926514
-1.4296244382858276 0.27292564511299133 5.6723833084106445
-1.431769847869873 0.9626938104629517 5.6900763511657715
-1.431769847869873 0.9626938104629517 5.6900763511657715
-1.4307010173797607 0.6954216957092285 5.689728260040283
-1.4302769899368286 1.098470687866211 5.688899993896484
-1.426552176475525 0.9376381039619446 5.689497947692871
-1.4217840433120728 0.8596388101577759 5.689513683319092
-1.4217840433120728 0.8596388101577759 5.689513683319092
-1.407897710800171 3.5350382328033447 5.6589250564575195
-1.4104282855987549 1.0283182859420776 5.678293228149414
-1.4127559661865234 0.3090093433856964 5.693160533905029
-1.4127559661865234 0.3090093433856964 5.693160533905029
-1.389962911605835 3.489534854888916 5.632938861846924
-1.4021981954574585 0.05191076919436455 5.68910026550293
-1.4011564254760742 0.8962265849113464 5.686601161956787
-1.407370924949646 1.1817941665649414 5.7138261795043945
-1.397268533706665 -0.05887072905898094 5.6918158531188965
-1.3899284601211548 0.9869073629379272 5.685006618499756
-1.3964022397994995 0.6766560077667236 5.713413238525391
-1.3911923170089722 0.44245612621307373 5.7098870277404785
-1.3855394124984741 0.9367722272872925 5.693387508392334
-1.3855878114700317 0.6239673495292664 5.697128772735596
-1.3843715190887451 0.794018566608429 5.709498882293701
-1.371498942375183 3.730893850326538 5.6770477294921875
-1.3650941848754883 1.1130101680755615 5.707898139953613
-1.3632595539093018 0.9707289934158325 5.703850269317627
-1.3677542209625244 1.0951342582702637 5.728188514709473
-1.3540986776351929 1.0331724882125854 5.709234714508057
-1.3565618991851807 1.2207874059677124 5.721127986907959
-1.3525917530059814 0.7916085720062256 5.7175822257995605
-1.3511980772018433 0.878429114818573 5.713633060455322
-1.3430185317993164 0.9938777089118958 5.708531379699707
-1.3287694454193115 3.552032709121704 5.663631916046143
-1.3394564390182495 0.8387824892997742 5.724833965301514
-1.325812578201294 0.9524973630905151 5.71640682220459
-1.325812578201294 0.9524973630905151 5.71640682220459
-1.3236095905303955 0.8566598892211914 5.733789920806885
-1.3111629486083984 -0.22372765839099884 5.729371547698975
-1.3097937107086182 0.8058855533599854 5.724434852600098
-1.296521544456482 0.9775951504707336 5.69927453994751
-1.2836148738861084 1.2702654600143433 5.737061500549316
-1.2692240476608276 1.2378368377685547 5.745898723602295
-1.26345956325531 1.2026851177215576 5.742559432983398
-1.2580516338348389 1.1874862909317017 5.740909099578857
-1.2464795112609863 0.9881487488746643 5.76796293258667
-1.2370731830596924 1.1788148880004883 5.730928421020508
-1.3023439645767212 1.3494207859039307 6.067923069000244
-1.3023439645767212 1.3494207859039307 6.067923069000244
-1.2296290397644043 0.9008178114891052 5.752768039703369
-1.2296290397644043 0.9008178114891052 5.752768039703369
-1.2209651470184326 1.247625708580017 5.7565460205078125
-1.2201124429702759 0.832592248916626 5.75432825088501
-1.218458890914917 0.7933635115623474 5.75340461730957
-1.216737151145935 1.0084456205368042 5.791357040405273
-1.1940737962722778 0.9167550802230835 5.76285457611084
-1.1953974962234497 1.2253752946853638 5.780114650726318
-1.1913737058639526 1.2776449918746948 5.764930725097656
-1.1906309127807617 1.332891821861267 5.7731122970581055
-1.2557568550109863 1.4265105724334717 6.105749607086182
-1.1787432432174683 -0.18798333406448364 5.77334451675415
-1.1671600341796875 1.4507853984832764 5.731163501739502
-1.1733460426330566 -0.22241555154323578 5.779008865356445
-1.1687854528427124 1.3119347095489502 5.777965068817139
-1.1280875205993652 3.498434543609619 5.757074356079102
-1.1280875205993652 3.498434543609619 5.757074356079102
-1.1116888523101807 3.6059229373931885 5.761606216430664
-1.0949621200561523 1.552088737487793 5.747115612030029
-1.0949621200561523 1.552088737487793 5.747115612030029
-1.101186752319336 1.0999258756637573 5.791368007659912
-1.0771898031234741 1.018579363822937 5.78380823135376
-1.0393213033676147 1.0995838642120361 5.790020942687988
-1.0357515811920166 0.9273234009742737 5.817256450653076
-1.0324645042419434 0.9003127217292786 5.839654445648193
-1.0058753490447998 0.9462330937385559 5.821171760559082
-1.0058753490447998 0.9462330937385559 5.821171760559082
-0.9867171049118042 1.6060764789581299 5.759433746337891
-0.9948139190673828 1.0536861419677734 5.825613498687744
-0.9914318919181824 1.3647946119308472 5.817697525024414
-0.941916286945343 1.1281486749649048 5.818323135375977
-0.919759213924408 1.5670166015625 5.7461395263671875
-0.9322419166564941 1.0521180629730225 5.844616889953613
-0.9211031198501587 1.141980528831482 5.820056438446045
-0.9201050996780396 1.0596435070037842 5.842946529388428
-0.920105516910553 1.0620096921920776 5.853351593017578
-0.920105516910553 1.0620096921920776 5.853351593017578
-0.9097064137458801 1.4238715171813965 5.8395562171936035
-0.9038809537887573 1.274524211883545 5.836580276489258
-0.9024964570999146 1.1418111324310303 5.827780723571777
-0.9179850816726685 1.662116527557373 6.087167739868164
-0.8667299747467041 1.4227997064590454 5.842425346374512
